-10.00 -10.00 -27.55
-9.00 -10.00 -66.61
-8.00 -10.00 16.21
-7.00 -10.00 -12.08
-6.00 -10.00 61.58
-5.00 -10.00 88.75
-4.00 -10.00 61.12
-3.00 -10.00 62.59
-2.00 -10.00 62.11
-1.00 -10.00 65.91
0.00 -10.00 84.41
1.00 -10.00 104.57
2.00 -10.00 134.49
3.00 -10.00 152.75
-10.00 -9.00 -61.97
-9.00 -9.00 -26.55
-8.00 -9.00 -59.34
-7.00 -9.00 -18.88
-6.00 -9.00 59.00
-5.00 -9.00 56.22
-4.00 -9.00 -3.79
-3.00 -9.00 80.64
-2.00 -9.00 63.36
-1.00 -9.00 43.83
0.00 -9.00 127.49
1.00 -9.00 154.08
2.00 -9.00 156.65
3.00 -9.00 175.01
-10.00 -8.00 -42.00
-9.00 -8.00 -101.76
-8.00 -8.00 -58.25
-7.00 -8.00 19.52
-6.00 -8.00 -8.00
-5.00 -8.00 -19.47
-4.00 -8.00 -36.70
-3.00 -8.00 41.36
-2.00 -8.00 38.67
-1.00 -8.00 35.06
0.00 -8.00 106.09
1.00 -8.00 163.58
2.00 -8.00 202.76
3.00 -8.00 114.70
-10.00 -7.00 -99.16
-9.00 -7.00 -129.64
-8.00 -7.00 -138.61
-7.00 -7.00 -56.03
-6.00 -7.00 15.54
-5.00 -7.00 -91.82
-4.00 -7.00 32.23
-3.00 -7.00 31.70
-2.00 -7.00 36.01
-1.00 -7.00 12.42
0.00 -7.00 56.11
1.00 -7.00 102.95
2.00 -7.00 176.44
3.00 -7.00 168.38
-10.00 -6.00 -91.90
-9.00 -6.00 -113.01
-8.00 -6.00 -97.26
-7.00 -6.00 -99.98
-6.00 -6.00 -50.91
-5.00 -6.00 -74.90
-4.00 -6.00 -29.33
-3.00 -6.00 23.28
-2.00 -6.00 7.83
-1.00 -6.00 2.93
0.00 -6.00 43.62
1.00 -6.00 127.00
2.00 -6.00 171.62
3.00 -6.00 156.44
-10.00 -5.00 -122.77
-9.00 -5.00 -105.49
-8.00 -5.00 -68.47
-7.00 -5.00 -69.74
-6.00 -5.00 -81.72
-5.00 -5.00 -101.28
-4.00 -5.00 15.29
-3.00 -5.00 -7.37
-2.00 -5.00 -22.88
-1.00 -5.00 -18.69
0.00 -5.00 54.74
1.00 -5.00 42.59
2.00 -5.00 129.46
3.00 -5.00 172.37
-10.00 -4.00 -63.69
-9.00 -4.00 -96.15
-8.00 -4.00 -43.38
-7.00 -4.00 -72.93
-6.00 -4.00 -50.99
-5.00 -4.00 -89.90
-4.00 -4.00 -86.61
-3.00 -4.00 -54.70
-2.00 -4.00 -23.94
-1.00 -4.00 -22.97
0.00 -4.00 1.10
1.00 -4.00 16.66
2.00 -4.00 47.97
3.00 -4.00 147.23
-10.00 -3.00 -53.13
-9.00 -3.00 -80.75
-8.00 -3.00 -36.66
-7.00 -3.00 -59.48
-6.00 -3.00 -3.13
-5.00 -3.00 -55.45
-4.00 -3.00 -74.61
-3.00 -3.00 -116.21
-2.00 -3.00 -39.34
-1.00 -3.00 -10.02
0.00 -3.00 45.20
1.00 -3.00 86.43
2.00 -3.00 102.97
3.00 -3.00 133.53
-10.00 -2.00 4.83
-9.00 -2.00 -49.78
-8.00 -2.00 -95.62
-7.00 -2.00 -51.51
-6.00 -2.00 -37.08
-5.00 -2.00 -52.29
-4.00 -2.00 -86.72
-3.00 -2.00 -92.85
-2.00 -2.00 -51.70
-1.00 -2.00 -54.40
0.00 -2.00 1.05
1.00 -2.00 26.28
2.00 -2.00 111.05
3.00 -2.00 120.80
-10.00 -1.00 134.71
-9.00 -1.00 131.98
-8.00 -1.00 34.12
-7.00 -1.00 -30.80
-6.00 -1.00 -88.27
-5.00 -1.00 -78.85
-4.00 -1.00 -77.93
-3.00 -1.00 -49.06
-2.00 -1.00 -30.46
-1.00 -1.00 30.21
0.00 -1.00 51.14
1.00 -1.00 75.92
2.00 -1.00 100.29
3.00 -1.00 156.96
