-10.00 -10.00 -22.73
-9.00 -10.00 -62.17
-8.00 -10.00 19.16
-7.00 -10.00 -10.78
-6.00 -10.00 59.26
-5.00 -10.00 84.18
-4.00 -10.00 57.47
-3.00 -10.00 59.37
-2.00 -10.00 59.04
-1.00 -10.00 62.33
0.00 -10.00 80.30
1.00 -10.00 99.03
2.00 -10.00 129.13
3.00 -10.00 148.93
-10.00 -9.00 -56.64
-9.00 -9.00 -21.03
-8.00 -9.00 -55.41
-7.00 -9.00 -19.97
-6.00 -9.00 54.95
-5.00 -9.00 50.68
-4.00 -9.00 -8.56
-3.00 -9.00 79.33
-2.00 -9.00 63.04
-1.00 -9.00 40.82
0.00 -9.00 123.46
1.00 -9.00 147.01
2.00 -9.00 149.93
3.00 -9.00 170.01
-10.00 -8.00 -35.30
-9.00 -8.00 -96.16
-8.00 -8.00 -54.40
-7.00 -8.00 20.55
-6.00 -8.00 -7.13
-5.00 -8.00 -21.33
-4.00 -8.00 -39.03
-3.00 -8.00 39.43
-2.00 -8.00 40.06
-1.00 -8.00 35.66
0.00 -8.00 100.69
1.00 -8.00 155.85
2.00 -8.00 195.17
3.00 -8.00 109.25
-10.00 -7.00 -93.51
-9.00 -7.00 -123.33
-8.00 -7.00 -132.55
-7.00 -7.00 -51.00
-6.00 -7.00 19.42
-5.00 -7.00 -91.29
-4.00 -7.00 30.28
-3.00 -7.00 30.44
-2.00 -7.00 37.47
-1.00 -7.00 14.06
0.00 -7.00 52.74
1.00 -7.00 96.54
2.00 -7.00 168.62
3.00 -7.00 162.67
-10.00 -6.00 -86.46
-9.00 -6.00 -107.24
-8.00 -6.00 -91.64
-7.00 -6.00 -94.29
-6.00 -6.00 -45.70
-5.00 -6.00 -72.56
-4.00 -6.00 -29.39
-3.00 -6.00 22.42
-2.00 -6.00 7.73
-1.00 -6.00 3.82
0.00 -6.00 42.54
1.00 -6.00 123.71
2.00 -6.00 164.93
3.00 -6.00 150.64
-10.00 -5.00 -117.30
-9.00 -5.00 -101.56
-8.00 -5.00 -65.83
-7.00 -5.00 -66.99
-6.00 -5.00 -77.44
-5.00 -5.00 -98.57
-4.00 -5.00 16.31
-3.00 -5.00 -7.82
-2.00 -5.00 -23.56
-1.00 -5.00 -20.59
0.00 -5.00 51.35
1.00 -5.00 37.69
2.00 -5.00 124.22
3.00 -5.00 166.56
-10.00 -4.00 -59.92
-9.00 -4.00 -93.37
-8.00 -4.00 -41.81
-7.00 -4.00 -71.36
-6.00 -4.00 -47.14
-5.00 -4.00 -85.49
-4.00 -4.00 -82.71
-3.00 -4.00 -50.25
-2.00 -4.00 -20.88
-1.00 -4.00 -23.55
0.00 -4.00 0.12
1.00 -4.00 13.30
2.00 -4.00 42.90
3.00 -4.00 141.95
-10.00 -3.00 -51.34
-9.00 -3.00 -80.59
-8.00 -3.00 -36.40
-7.00 -3.00 -58.49
-6.00 -3.00 -1.05
-5.00 -3.00 -52.81
-4.00 -3.00 -69.21
-3.00 -3.00 -109.75
-2.00 -3.00 -34.37
-1.00 -3.00 -8.54
0.00 -3.00 46.60
1.00 -3.00 85.01
2.00 -3.00 100.75
3.00 -3.00 132.19
-10.00 -2.00 4.39
-9.00 -2.00 -50.12
-8.00 -2.00 -96.12
-7.00 -2.00 -50.73
-6.00 -2.00 -36.22
-5.00 -2.00 -51.78
-4.00 -2.00 -82.74
-3.00 -2.00 -86.98
-2.00 -2.00 -47.96
-1.00 -2.00 -52.12
0.00 -2.00 2.42
1.00 -2.00 23.78
2.00 -2.00 106.20
3.00 -2.00 118.05
-10.00 -1.00 134.14
-9.00 -1.00 131.89
-8.00 -1.00 34.20
-7.00 -1.00 -29.23
-6.00 -1.00 -87.40
-5.00 -1.00 -77.27
-4.00 -1.00 -76.01
-3.00 -1.00 -44.85
-2.00 -1.00 -27.76
-1.00 -1.00 31.93
0.00 -1.00 52.07
1.00 -1.00 72.64
2.00 -1.00 96.04
3.00 -1.00 153.35
