-10.00 -10.00 5.90
-9.00 -10.00 4.45
-8.00 -10.00 8.38
-7.00 -10.00 9.20
-6.00 -10.00 13.82
-5.00 -10.00 15.26
-4.00 -10.00 13.21
-3.00 -10.00 12.25
-2.00 -10.00 10.32
-1.00 -10.00 5.94
0.00 -10.00 2.76
1.00 -10.00 -0.30
2.00 -10.00 -3.78
3.00 -10.00 -8.90
-10.00 -9.00 3.36
-9.00 -9.00 1.40
-8.00 -9.00 3.99
-7.00 -9.00 8.07
-6.00 -9.00 13.21
-5.00 -9.00 13.49
-4.00 -9.00 10.82
-3.00 -9.00 13.99
-2.00 -9.00 12.31
-1.00 -9.00 8.66
0.00 -9.00 7.90
1.00 -9.00 5.23
2.00 -9.00 0.65
3.00 -9.00 -5.12
-10.00 -8.00 0.92
-9.00 -8.00 -2.71
-8.00 -8.00 0.72
-7.00 -8.00 6.54
-6.00 -8.00 7.45
-5.00 -8.00 6.65
-4.00 -8.00 6.78
-3.00 -8.00 10.96
-2.00 -8.00 10.50
-1.00 -8.00 7.34
0.00 -8.00 7.83
1.00 -8.00 7.07
2.00 -8.00 3.32
3.00 -8.00 -6.32
-10.00 -7.00 0.23
-9.00 -7.00 -5.21
-8.00 -7.00 -5.27
-7.00 -7.00 -0.29
-6.00 -7.00 3.72
-5.00 -7.00 0.34
-4.00 -7.00 6.36
-3.00 -7.00 8.44
-2.00 -7.00 8.37
-1.00 -7.00 6.16
0.00 -7.00 6.00
1.00 -7.00 4.78
2.00 -7.00 2.93
3.00 -7.00 -3.52
-10.00 -6.00 1.49
-9.00 -6.00 -3.63
-8.00 -6.00 -4.69
-7.00 -6.00 -5.12
-6.00 -6.00 -2.20
-5.00 -6.00 -2.47
-4.00 -6.00 1.63
-3.00 -6.00 5.16
-2.00 -6.00 4.59
-1.00 -6.00 3.43
0.00 -6.00 2.28
1.00 -6.00 2.87
2.00 -6.00 1.29
3.00 -6.00 -3.97
-10.00 -5.00 1.01
-9.00 -5.00 -1.71
-8.00 -5.00 -2.20
-7.00 -5.00 -4.62
-6.00 -5.00 -4.53
-5.00 -5.00 -5.06
-4.00 -5.00 0.62
-3.00 -5.00 1.00
-2.00 -5.00 0.30
-1.00 -5.00 0.13
0.00 -5.00 0.76
1.00 -5.00 -3.11
2.00 -5.00 -3.55
3.00 -5.00 -4.56
-10.00 -4.00 3.80
-9.00 -4.00 1.00
-8.00 -4.00 0.96
-7.00 -4.00 -1.31
-6.00 -4.00 -1.93
-5.00 -4.00 -5.11
-4.00 -4.00 -5.47
-3.00 -4.00 -4.09
-2.00 -4.00 -2.23
-1.00 -4.00 -1.93
0.00 -4.00 -2.07
1.00 -4.00 -6.67
2.00 -4.00 -8.71
3.00 -4.00 -6.97
-10.00 -3.00 6.67
-9.00 -3.00 3.82
-8.00 -3.00 3.61
-7.00 -3.00 1.61
-6.00 -3.00 2.20
-5.00 -3.00 -2.17
-4.00 -3.00 -5.62
-3.00 -3.00 -7.95
-2.00 -3.00 -4.43
-1.00 -3.00 -3.69
0.00 -3.00 -4.29
1.00 -3.00 -5.13
2.00 -3.00 -6.70
3.00 -3.00 -7.86
-10.00 -2.00 7.37
-9.00 -2.00 4.36
-8.00 -2.00 2.26
-7.00 -2.00 3.11
-6.00 -2.00 2.52
-5.00 -2.00 -0.58
-4.00 -2.00 -4.59
-3.00 -2.00 -6.28
-2.00 -2.00 -4.55
-1.00 -2.00 -6.98
0.00 -2.00 -5.91
1.00 -2.00 -6.48
2.00 -2.00 -5.95
3.00 -2.00 -9.00
-10.00 -1.00 12.80
-9.00 -1.00 7.69
-8.00 -1.00 3.06
-7.00 -1.00 3.00
-6.00 -1.00 2.24
-5.00 -1.00 0.56
-4.00 -1.00 -1.48
-3.00 -1.00 -2.83
-2.00 -1.00 -1.17
-1.00 -1.00 -3.09
0.00 -1.00 -2.33
1.00 -1.00 -3.46
2.00 -1.00 -4.89
3.00 -1.00 -6.38
