-10.00 -10.00 5.81
-9.00 -10.00 4.56
-8.00 -10.00 8.46
-7.00 -10.00 9.11
-6.00 -10.00 13.44
-5.00 -10.00 14.72
-4.00 -10.00 12.75
-3.00 -10.00 11.93
-2.00 -10.00 10.09
-1.00 -10.00 5.72
0.00 -10.00 2.52
1.00 -10.00 -0.56
2.00 -10.00 -3.87
3.00 -10.00 -8.62
-10.00 -9.00 3.43
-9.00 -9.00 1.73
-8.00 -9.00 4.27
-7.00 -9.00 8.02
-6.00 -9.00 12.86
-5.00 -9.00 12.97
-4.00 -9.00 10.38
-3.00 -9.00 13.82
-2.00 -9.00 12.26
-1.00 -9.00 8.48
0.00 -9.00 7.53
1.00 -9.00 4.70
2.00 -9.00 0.25
3.00 -9.00 -5.13
-10.00 -8.00 1.12
-9.00 -8.00 -2.27
-8.00 -8.00 1.15
-7.00 -8.00 6.79
-6.00 -8.00 7.56
-5.00 -8.00 6.54
-4.00 -8.00 6.62
-3.00 -8.00 10.92
-2.00 -8.00 10.68
-1.00 -8.00 7.40
0.00 -8.00 7.44
1.00 -8.00 6.42
2.00 -8.00 2.74
3.00 -8.00 -6.50
-10.00 -7.00 0.37
-9.00 -7.00 -4.71
-8.00 -7.00 -4.62
-7.00 -7.00 0.35
-6.00 -7.00 4.26
-5.00 -7.00 0.61
-4.00 -7.00 6.44
-3.00 -7.00 8.58
-2.00 -7.00 8.68
-1.00 -7.00 6.39
0.00 -7.00 5.79
1.00 -7.00 4.24
2.00 -7.00 2.32
3.00 -7.00 -3.79
-10.00 -6.00 1.51
-9.00 -6.00 -3.25
-8.00 -6.00 -4.10
-7.00 -6.00 -4.40
-6.00 -6.00 -1.47
-5.00 -6.00 -1.93
-4.00 -6.00 1.97
-3.00 -6.00 5.43
-2.00 -6.00 4.89
-1.00 -6.00 3.67
0.00 -6.00 2.24
1.00 -6.00 2.53
2.00 -6.00 0.77
3.00 -6.00 -4.27
-10.00 -5.00 0.82
-9.00 -5.00 -1.64
-8.00 -5.00 -1.96
-7.00 -5.00 -4.18
-6.00 -5.00 -3.87
-5.00 -5.00 -4.42
-4.00 -5.00 1.17
-3.00 -5.00 1.46
-2.00 -5.00 0.67
-1.00 -5.00 0.31
0.00 -5.00 0.68
1.00 -5.00 -3.44
2.00 -5.00 -3.96
3.00 -5.00 -4.83
-10.00 -4.00 3.24
-9.00 -4.00 0.69
-8.00 -4.00 0.84
-7.00 -4.00 -1.17
-6.00 -4.00 -1.45
-5.00 -4.00 -4.42
-4.00 -4.00 -4.68
-3.00 -4.00 -3.25
-2.00 -4.00 -1.55
-1.00 -4.00 -1.58
0.00 -4.00 -1.96
1.00 -4.00 -6.84
2.00 -4.00 -9.02
3.00 -4.00 -7.16
-10.00 -3.00 5.67
-9.00 -3.00 3.05
-8.00 -3.00 3.11
-7.00 -3.00 1.44
-6.00 -3.00 2.38
-5.00 -3.00 -1.70
-4.00 -3.00 -4.80
-3.00 -3.00 -6.96
-2.00 -3.00 -3.58
-1.00 -3.00 -3.16
0.00 -3.00 -3.99
1.00 -3.00 -5.15
2.00 -3.00 -6.83
3.00 -3.00 -7.85
-10.00 -2.00 5.97
-9.00 -2.00 3.24
-8.00 -2.00 1.44
-7.00 -2.00 2.65
-6.00 -2.00 2.36
-5.00 -2.00 -0.46
-4.00 -2.00 -4.05
-3.00 -2.00 -5.47
-2.00 -2.00 -3.84
-1.00 -2.00 -6.48
0.00 -2.00 -5.64
1.00 -2.00 -6.57
2.00 -2.00 -6.21
3.00 -2.00 -9.05
-10.00 -1.00 11.14
-9.00 -1.00 6.33
-8.00 -1.00 2.02
-7.00 -1.00 2.31
-6.00 -1.00 1.82
-5.00 -1.00 0.42
-4.00 -1.00 -1.33
-3.00 -1.00 -2.41
-2.00 -1.00 -0.76
-1.00 -1.00 -2.79
0.00 -1.00 -2.21
1.00 -1.00 -3.65
2.00 -1.00 -5.16
3.00 -1.00 -6.47
